1739263387.0040486,260.25,1862.0,416.4894618033859,431.53287761668844
1739263387.0040486,262.09,1746.5,427.0117144889924,424.0348824828023
1739263387.0040486,263.91,1725.5,428.42379014079484,418.30592009023263
1739263387.0040486,265.62,1697.75,430.72083273029034,412.9658842148796
1739263387.0040486,267.42,1706.5,429.522980464719,407.681686687663
1739263387.0061622,269.17,1721.0,427.9180573576465,402.49299346845396
1739263387.0061622,270.92,1747.25,425.2975240307836,397.194556144672
1739263387.0061622,277.78,2362.5,365.9246449189136,368.01890177521534
1739263387.0061622,279.58,2387.75,364.5549107174684,360.26197592052773
1739263387.0061622,281.34,2414.5,363.2636778366025,352.52351878510717
1739263387.0061622,283.09,2447.25,361.63405417819513,344.57436064891624
1739263387.0061622,284.86,2463.0,361.93741572829,336.8343766762729
1739263387.0061622,286.61,2505.75,359.88081873803026,328.3717275436484
1739263387.0061622,288.83,0.0,600.0,400.0
1739263387.009139,290.62,1414.0,467.6585558787715,350.2033920039953
1739263387.009139,291.88,0.0,600.0,400.0
1739263387.009139,294.28,1288.5,482.54718622361713,347.01737043133545
1739263387.009139,296.03,1260.0,486.7808865438413,344.7059465385159
1739263387.009139,297.8,1222.5,491.8599757799559,342.9842332184484
1739263387.009139,299.48,1207.25,494.9055638007003,340.58884696497364
1739263387.009139,301.3,1182.75,498.93888186604215,338.5538770424511
1739263387.009139,303.08,1188.0,500.45637621432,335.157830360058
1739263387.009139,304.75,1201.75,501.25857923280046,331.5006390549893
1739263387.0136602,306.52,1220.0,501.9548001222548,327.3973913627547
1739263387.0136602,308.19,1290.5,498.5712407750091,320.2120980218253
1739263387.0136602,310.2,1137.75,513.0991068420936,326.56305157920747
1739263387.0136602,311.88,1157.0,513.8561876488907,322.7618384888864
1739263387.0136602,323.41,3263.75,405.45284043581034,137.94648765852088
1739263387.0136602,337.7,612.25,576.7677966328367,343.3540349918305
1739263387.0136602,339.47,602.25,578.8792265823615,343.59996848191685
1739263387.0136602,341.31,597.75,580.8452407455577,343.3771616491688
1739263387.0136602,343.19,594.5,582.8071268031523,343.0903557273715
1739263387.0613801,344.94,591.0,584.644022286498,342.9298331134171
1739263387.0613801,349.53,0.0,600.0,400.0
1739263387.0613801,351.11,428.0,593.3857756364832,357.7141627010998
1739263387.0613801,352.86,427.5,594.6864218835226,357.58150889529315
1739263387.0613801,354.55,427.75,595.9373558699339,357.4183660755903
1739263387.0613801,356.27,428.0,597.2156542698583,357.29066356339587
1739263387.0613801,358.11,428.25,598.5875997703301,357.19829734004463
1739263387.0613801,0.03,429.0,600.0224623864468,357.1000058806392
1739263387.0613801,1.69,430.75,601.2703587477623,356.943736650146
1739263387.0613801,3.44,432.5,602.5951410787155,356.8279286716335
1739263387.0613801,5.89,588.5,606.0391238439533,341.4606842951048
1739263387.0613801,7.61,591.0,607.8265768301858,341.420526674259
1739263387.0613801,9.39,592.5,609.6668608979546,341.5439113489485
1739263387.0613801,12.62,675.25,614.7531244908781,334.10636644745824
1739263387.0613801,14.45,666.25,616.6252720816767,335.4826306084151
1739263387.0613801,16.31,652.0,618.310391292028,337.42388977626666
1739263387.0613801,18.0,645.0,619.9315961371841,338.6568546989626
1739263387.0613801,19.77,653.25,622.0958696377127,338.52538597149874
1739263387.0613801,21.58,657.75,624.1920434900765,338.8355032982838
1739263387.0613801,23.14,718.75,628.2453783819199,333.9075327661149
1739263387.0613801,28.8,2260.75,708.9124618725454,201.88896730908357
1739263387.0613801,30.52,2395.0,721.6274638151356,193.68225949788538
1739263387.0613801,33.64,728.0,640.329227342794,339.3914740161647
1739263387.0613801,35.44,706.75,640.9809056537848,342.41943907189176
1739263387.0613801,37.31,682.5,641.3681832665561,345.7161542148622
1739263387.0613801,40.89,649.75,642.5332121358074,350.8809966468129
1739263387.0613801,44.64,619.5,643.5291656290386,355.92036479688477
1739263387.0613801,53.52,559.75,645.0075072507245,366.72050306756455
1739263387.0613801,60.83,0.0,600.0,400.0
1739263387.0613801,58.44,0.0,600.0,400.0
1739263387.0613801,60.58,583.0,650.7817719380771,371.36258323749973
1739263387.0613801,69.55,0.0,600.0,400.0
1739263387.0613801,65.89,1787.75,763.1791867718102,326.97224069238706
1739263387.0613801,67.66,1773.5,764.0389217179528,332.588912917745
1739263387.0613801,71.19,1747.0,765.3697970516446,343.6713197110223
1739263387.0613801,78.41,0.0,600.0,400.0
1739263387.0613801,83.44,0.0,600.0,400.0
1739263387.0613801,88.69,2449.5,844.8859784985027,394.3999968901037
1739263387.0613801,90.2,3997.5,999.7475645862016,401.3953879032356
1739263387.0613801,91.98,4031.25,1002.8843135555985,413.92822730408426
1739263387.0613801,94.56,1317.75,731.3578827033377,410.4765107118819
1739263387.0613801,96.3,1292.25,728.4446044686956,414.18041635074036
1739263387.0613801,98.16,1264.25,725.1450181126197,417.9444996194405
1739263387.0613801,100.08,0.0,600.0,400.0
1739263387.0613801,101.89,1062.25,703.945938335392,421.8858979385101
1739263387.0613801,103.56,1064.0,703.4340918995093,424.94691630089505
1739263387.0613801,105.31,1069.75,703.1786015840601,428.24582801331536
1739263387.0613801,113.77,0.0,600.0,400.0
1739263387.0613801,115.42,0.0,600.0,400.0
1739263387.0613801,114.92,3210.5,891.1592785784771,535.2751898821834
1739263387.0613801,118.69,573.25,650.2872077526378,427.5200356366603
1739263387.0613801,120.56,552.0,647.5325651732088,428.06590900104
1739263387.0613801,122.45,550.5,646.4544933840015,429.53781549870894
1739263387.0613801,124.11,556.25,646.055412507626,431.19358273351116
1739263387.0613801,125.75,562.25,645.6307471359828,432.84943745046473
1739263387.0613801,127.56,575.0,645.5811361857119,435.05153383262405
1739263387.0613801,130.17,925.75,670.7396943830166,459.7162144111414
1739263387.0613801,131.97,919.25,668.3457851884524,461.47405364846145
1739263387.0613801,133.75,918.75,666.36718901424,463.532761999996
1739263387.0613801,135.48,931.0,665.2778277652782,466.38083460040764
1739263387.0613801,137.23,943.5,664.0690308827805,469.26096867458125
1739263387.0613801,138.89,976.5,664.2055348605213,473.5742603990987
1739263387.0613801,140.58,1022.0,664.8970214036193,478.9507226878778
1739263387.0613801,150.34,2641.25,730.7028184519106,629.5186024568094
1739263387.0613801,152.12,2670.75,724.8899569235087,636.0753148566027
1739263387.0613801,155.73,0.0,600.0,400.0
1739263387.0613801,159.33,2199.75,677.6478749348051,605.8149852248589
1739263387.0613801,161.08,2196.0,671.2047827426516,607.7355022969637
1739263387.0613801,162.86,2199.25,664.8135519793447,610.1575816020463
1739263387.0613801,164.62,2205.75,658.5008063291433,612.6757773791836
1739263387.0613801,166.38,2207.5,651.9825140087863,614.5422586282859
1739263387.0613801,168.16,0.0,600.0,400.0
1739263387.0613801,169.98,1991.25,634.6461430286894,596.0877619797717
1739263387.0613801,171.67,2192.5,631.7636893280251,616.9369275625354
1739263387.0613801,173.42,2232.0,625.5765752685998,621.7297426993719
1739263387.0613801,175.2,2217.25,618.5534698128577,620.9473792170963
1739263387.0613801,184.31,0.0,600.0,400.0
1739263387.0613801,181.83,0.0,600.0,400.0
1739263387.0613801,183.62,0.0,600.0,400.0
1739263387.0613801,185.38,5561.5,547.8549361363121,953.700022408029
1739263387.0613801,187.11,0.0,600.0,400.0
1739263387.0613801,188.88,6040.25,506.7593705086706,996.785041398543
1739263387.0613801,190.62,6104.0,487.50666859755177,999.9445060920042
1739263387.0613801,192.41,5959.5,471.92689721155546,982.0255001648472
1739263387.0613801,195.97,5193.0,457.12291244504127,899.2580774026723
1739263387.0613801,197.77,4899.25,450.47649239888165,866.5503470148301
1739263387.0613801,199.53,4603.5,446.1048203504557,833.8644905735366
1739263387.0613801,201.31,4351.75,441.8513840340852,805.4211339990376
1739263387.0613801,203.11,4146.25,437.26066196672616,781.3525907627898
1739263387.0613801,214.88,0.0,600.0,400.0
1739263387.0613801,216.66,965.25,542.3682761270328,477.4316474603896
1739263387.0613801,242.16,0.0,600.0,400.0
1739263387.0613801,243.97,2329.75,390.65696065517,502.23914369197826
1739263387.0613801,245.72,2311.5,389.2959417585495,495.04800019244715
1739263387.0613801,247.53,2296.5,387.7850788823214,487.7721468064752
1739263387.0613801,249.27,2278.25,386.9246585100782,480.64198332105445
1739263387.0613801,251.08,2268.75,385.38254971027493,473.5636843567354
1739263387.0613801,252.81,2256.75,384.40591164635345,466.69628694282795
1739263387.0613801,254.58,2252.25,382.8825033951995,459.88566851145964
1739263387.0613801,256.36,0.0,600.0,400.0
1739263387.0613801,258.25,1871.0,416.82059209813434,438.10137163832724
1739263387.0613801,260.03,1871.5,415.67623824162956,432.40174920036725
1739263387.0613801,261.88,1749.5,426.803976341814,424.71112884902436
1739263387.0613801,263.67,1727.75,428.27834655151594,419.0492614533676
1739263387.0613801,265.45,1698.75,430.6603634974151,413.47602070985414
1739263387.0613801,267.19,1703.75,429.8298595413644,408.35247994838807
1739263387.0613801,268.94,1719.5,428.0794256634204,403.18097780259734
1739263387.0613801,270.72,1735.5,426.4637027784277,397.8191637782441
1739263387.0613801,277.55,2357.25,366.31859943415594,369.0277760794363
1739263387.0613801,279.31,2385.5,364.59230078419563,361.4083214938585
1739263387.0613801,281.11,2409.0,363.61469542726013,353.58020053842307
1739263387.0613801,282.83,2442.25,361.8725123052751,345.7676274795335
1739263387.0613801,284.61,2466.0,361.3737712133849,337.7980471763303
1739263387.0613801,286.36,2499.75,360.1462747046745,329.5891266425807
1739263387.0613801,288.64,1402.25,467.1304317777164,355.18115948148676
1739263387.0613801,292.3,1254.0,483.9787013144229,352.41619759506284
1739263387.0613801,294.06,1223.75,488.25705953632394,350.1085590353281
1739263387.0613801,295.86,1175.75,494.19866598766794,348.7168804945434
1739263387.0613801,297.62,1161.25,497.10839546179665,346.1638286971113
1739263387.0613801,299.34,1151.5,499.62058913709063,343.5775188881663
1739263387.0613801,301.05,1137.25,502.5698001670722,341.34224871753304
1739263387.0613801,302.84,1148.75,503.4833788005827,337.7038728551429
1739263387.0613801,304.61,1157.5,504.73343847825623,334.2554583571852
1739263387.0613801,306.3,1179.25,504.9609073158437,330.1868458901021
1739263387.0613801,308.34,1014.25,520.4479613306538,337.0833585722279
1739263387.0678701,310.0,1027.0,521.3272356916809,333.98571248519244
1739263387.0678701,321.42,2780.75,426.59055115909507,182.61815007297972
1739263387.0678701,337.44,612.75,576.4918029443438,343.4138683404455
1739263387.0678701,339.34,603.0,578.7248518180085,343.5778583370473
1739263387.0678701,341.09,598.25,580.6117622653181,343.4038264319622
1739263387.0678701,342.95,594.75,582.5615656191488,343.1389708909103
1739263387.0678701,344.67,591.25,584.3686475067308,342.9787193739814
1739263387.0728748,349.03,0.0,600.0,400.0
1739263387.0728748,350.84,428.0,593.1865824998914,357.74580089542326
1739263387.0728748,352.44,427.5,594.375623648805,357.62159877177857
1739263387.0728748,354.38,427.75,595.8110316867378,357.4306075980584
1739263387.0728748,355.95,427.75,596.9789306767943,357.33181788329404
1739263387.0728748,357.97,428.25,598.4830198016043,357.2018762551712
1739263387.0728748,359.78,429.0,599.8352762299645,357.1003162473243
1739263387.0728748,1.17,430.5,600.8790350697311,356.9589754147722
1739263387.0728748,3.23,432.0,602.4340728821336,356.8686275525058
1739263387.0728748,5.75,588.25,605.8935627243304,341.4709769138901
1739263387.0728748,7.34,590.25,607.5408599077955,341.45868077288486
1739263387.0728748,9.19,592.25,609.4587594531148,341.53520294563475
1739263387.0728748,12.5,676.25,614.6367288925642,333.9779825185145
1739263387.0728748,14.23,666.25,616.377421218815,335.4192699079555
1739263387.0771909,16.09,657.75,618.2293413915601,336.8015685524557
1739263387.0771909,17.73,645.5,619.6575297305319,338.5159856150133
1739263387.0771909,19.55,651.25,621.7927358918505,338.6294672717594
1739263387.0771909,21.27,656.0,623.7972756495018,338.86858686680284
1739263387.0771909,22.88,719.75,627.9840507299527,333.6879081181763
1739263387.0771909,26.03,0.0,600.0,400.0
1739263387.0771909,28.53,0.0,600.0,400.0
1739263387.0771909,30.25,2377.25,719.7596686931477,194.644704525285
1739263387.0771909,33.38,0.0,600.0,400.0
1739263387.0771909,35.28,707.75,640.877708084711,342.22358953049127
1739263387.0771909,40.66,649.75,642.3356936533975,350.7106536066293
1739263387.0771909,44.39,624.0,643.6512105650877,355.4092855383279
1739263387.0771909,53.41,0.0,600.0,400.0
1739263387.0771909,60.56,0.0,600.0,400.0
1739263387.0771909,56.97,0.0,600.0,400.0
1739263387.0771909,60.39,582.0,650.5995867557598,371.2437516329695
1739263387.0811355,63.83,1808.0,762.2660868816996,320.2606932052911
1739263387.0811355,67.36,1779.75,764.2605496638315,331.49034776663984
1739263387.0811355,69.12,1766.25,765.025849461399,337.0487519222721
1739263387.0811355,78.3,0.0,600.0,400.0
1739263387.0811355,81.31,0.0,600.0,400.0
1739263387.0811355,83.16,2298.25,828.1892445952574,372.6284951811964
1739263387.0811355,86.62,2373.0,836.8872092787083,386.0092859315375
1739263387.0841653,88.39,2449.25,844.8283101176974,393.1185619299
1739263387.0841653,89.94,0.0,600.0,400.0
1739263387.0841653,91.7,4027.75,1002.5977226595849,411.9488214613804
1739263387.0841653,94.25,1327.75,732.4098933265842,409.83975478569414
1739263387.0841653,96.03,1300.75,729.3552986760079,413.66427200551794
1739263387.0841653,97.77,1274.0,726.2303106821718,417.2240722560723
1739263387.0841653,99.61,1256.75,723.9113920948905,420.9802891807123
1739263387.0841653,101.59,1064.25,704.255029306092,421.3815221484794
1739263387.0841653,103.38,1062.0,703.3173830503627,424.57556427886544
1739263387.0877125,105.12,1068.0,703.1027590273936,427.857872871761
1739263387.0877125,106.8,1087.0,704.0606293817357,431.4177563278641
1739263387.0877125,116.88,0.0,600.0,400.0
1739263387.0877125,114.62,0.0,600.0,400.0
1739263387.0877125,118.34,0.0,600.0,400.0
1739263387.0877125,120.31,553.0,647.7409036868534,427.90871038157434
1739263387.0877125,122.08,551.25,646.7078183779779,429.27704437558253
1739263387.0877125,123.73,555.25,646.1781154065386,430.83191986400453
1739263387.0877125,125.45,561.5,645.7410234598224,432.56656679553396
1739263387.0877125,127.25,572.5,645.5711146451072,434.6530808154557
1739263387.0877125,129.89,0.0,600.0,400.0
1739263387.0877125,131.7,921.0,668.7653765884845,461.26771566366665
1739263387.0877125,133.42,918.25,666.6956919011332,463.1150957127462
1739263387.0877125,135.2,929.5,665.4957498161161,465.9545999610696
1739263387.0877125,136.91,937.75,664.0620467128276,468.48214946950407
1739263387.0877125,138.58,970.25,664.1891846707503,472.7571247116344
1739263387.0877125,140.38,1012.25,664.5504648926398,477.9726753878824
1739263387.0921333,150.03,2633.75,731.5680546021308,628.1583608663306
1739263387.0921333,151.8,0.0,600.0,400.0
1739263387.0921333,153.62,0.0,600.0,400.0
1739263387.0921333,155.39,0.0,600.0,400.0
1739263387.0921333,159.02,2198.25,678.706592909981,605.2518035426303
1739263387.0921333,160.77,2197.5,672.3770964393141,607.488839244462
1739263387.0933807,162.55,2197.75,665.9046786967064,609.6607353580634
1739263387.0933807,164.27,2193.0,659.4532109462721,611.0871992996688
1739263387.0933807,166.03,2211.25,653.3826302413386,614.5846229661308
1739263387.0933807,167.81,2169.75,645.8151829751373,612.0828131507942
1739263387.0933807,169.67,1986.75,635.6258748259874,595.454733040372
1739263387.0933807,171.38,0.0,600.0,400.0
1739263387.0933807,173.12,2236.0,626.7851097018927,621.9899049467285
1739263387.0933807,174.86,2217.5,619.8665033330359,620.8582906420279
1739263387.1011581,181.52,5220.0,586.1534838851918,921.8163220822844
1739263387.1011581,183.25,5790.5,567.1720413614263,978.1186968362329
1739263387.1011581,185.03,5739.0,549.6819762378038,971.6898691464341
1739263387.1011581,188.55,6034.5,510.2836197649017,996.7435576673713
1739263387.1011581,190.3,6104.25,490.85465783760225,1000.5880242805822
1739263387.1011581,195.62,5267.75,458.16266460247834,907.3204814634739
1739263387.1011581,197.39,4929.0,452.6848864403589,870.3707764273947
1739263387.1031587,199.19,4657.25,446.9153462962538,839.8464100403733
1739263387.1031587,201.0,4400.0,442.31810220006787,810.7753876587688
1739263387.1031587,202.78,4177.5,438.2498017867375,785.1648165110234
1739263387.1031587,204.56,3994.5,433.9702355321225,763.3103629278157
1739263387.1031587,212.72,1040.25,543.770947504795,487.5185367821668
1739263387.1031587,240.06,2386.0,393.24152131158144,519.0835483618571
1739263387.1031587,241.86,2358.0,392.07207339562353,511.2097897579391
1739263387.1076958,243.62,2332.5,391.03904263061065,503.6382207260827
1739263387.1076958,245.39,2314.25,389.59685078353675,496.3745060936486
1739263387.1076958,247.12,2298.5,388.2343269324463,489.36622522097474
1739263387.1076958,248.92,2281.0,387.16464803458587,482.04098337878634
1739263387.1076958,250.7,2270.5,385.7099939430277,475.0432928655371
1739263387.1076958,252.48,2257.75,384.69826728972663,467.9670105047589
1739263387.1076958,254.28,2253.5,383.07871412866825,461.0555340319613
1739263387.1076958,256.09,1962.5,409.5051217034742,447.17800168290114
1739263387.1076958,257.94,0.0,600.0,400.0
1739263387.1076958,259.66,1871.25,415.91391548606924,433.58688900940285
1739263387.1076958,261.52,1754.0,426.5175783339054,425.8652155001144
1739263387.1076958,263.33,1730.0,428.17093284550486,420.09407078757323
1739263387.1076958,265.08,1699.0,430.7260102507747,414.5714238967632
1739263387.1076958,266.86,1705.75,429.6810888772004,409.3434008232494
1739263387.1076958,268.58,1719.0,428.1527904148771,404.2598776751022
1739263387.1076958,270.34,1731.25,426.8780481833434,398.97266159848016
1739263387.1076958,272.09,1778.0,422.3182771665041,393.5157598038971
1739263387.1107004,277.23,2354.75,366.39727561969585,370.36483866924846
1739263387.1107004,278.98,2377.5,365.16412877024334,362.88967685722514
1739263387.1107004,280.77,2406.5,363.5889947130364,355.0304649878691
1739263387.1107004,282.5,2434.25,362.3451444668302,347.3131869771173
1739263387.1107004,284.3,2455.0,362.10663793961345,339.36174237656684
1739263387.1107004,286.0,2490.75,360.5737430841632,331.345625599881
1739263387.1107004,288.33,1382.25,468.7884063696308,356.5296845884589
1739263387.1132085,296.97,0.0,600.0,400.0
1739263387.1132085,291.98,1185.25,490.0900417231429,355.6381166249726
1739263387.1132085,293.73,1145.0,495.180745030366,353.9220900255789
1739263387.1132085,295.59,1109.75,499.9107679278294,352.06675216300084
1739263387.1132085,297.33,1103.5,501.9676021869069,349.3366850767199
1739263387.1132085,299.2,1078.0,505.8990000703145,347.40872874484455
1739263387.1132085,300.84,1088.25,506.56261403095067,344.2116900393021
1739263387.1132085,302.58,1098.25,507.4570167344805,340.86179852821215
1739263387.1177886,304.61,0.0,600.0,400.0
1739263387.1177886,306.42,893.5,528.1012517489955,346.9529218529552
1739263387.1177886,322.81,0.0,600.0,400.0
1739263387.1177886,324.62,3217.0,413.7367925641572,137.70835401082212
1739263387.1177886,338.95,604.0,578.3053760578065,343.63065290419974
1739263387.1177886,340.7,599.5,580.1856621568423,343.4191329525854
1739263387.1217701,342.59,595.25,582.1896834402886,343.201952066617
1739263387.1217701,344.17,592.5,583.8375464679588,342.9970387100406
1739263387.1217701,350.44,428.25,592.8876089666629,357.76974403595324
1739263387.1217701,352.39,427.75,594.3353329287445,357.60174329088716
1739263387.1217701,353.91,427.25,595.4672823190078,357.5161195813704
1739263387.1217701,355.75,427.75,596.8300093318918,357.3426233323695
1739263387.1227682,357.58,428.0,598.1927952164225,357.2381711000311
1739263387.1227682,359.38,429.0,599.5357863851889,357.10251166187203
1739263387.1227682,0.81,430.25,600.6082313470364,356.97929940565257
1739263387.1227682,2.83,431.75,602.1316679090115,356.877655247822
1739263387.1227682,5.28,589.25,605.4224557662899,341.3250257906948
1739263387.1227682,7.11,589.5,607.296516764251,341.503304853103
1739263387.1227682,8.77,592.0,609.0261281058376,341.49214572882534
1739263387.1247675,11.97,0.0,600.0,400.0
1739263387.1247675,13.91,666.75,616.0285006991461,335.2802751061357
1739263387.1247675,15.66,661.0,617.8422602638389,336.35360380447736
1739263387.1247675,17.52,646.5,619.4621513858162,338.34898895041886
1739263387.1247675,19.3,644.5,621.3016526103672,339.17202867046086
1739263387.1247675,20.97,655.0,623.4410796663188,338.8381999604549
1739263387.1247675,22.44,712.25,627.1877034624274,334.1681733092639
1739263387.1247675,24.25,755.75,631.0400772862636,331.09358355666154
1739263387.1299398,35.59,0.0,600.0,400.0
1739263387.1299398,29.94,2356.75,717.6237018448478,195.77617575484894
1739263387.1299398,34.91,711.5,640.7183629360279,341.6532998378665
1739263387.1299398,38.64,672.5,641.9925845348945,347.4720517811733
1739263387.1299398,40.36,660.5,642.7731932870082,349.67052120245796
1739263387.1299398,43.98,622.75,643.244210321981,355.18801612706403
1739263387.1299398,45.7,619.0,644.3013802162612,356.76809383182075
1739263387.13394,55.03,0.0,600.0,400.0
1739263387.13394,63.55,1806.0,761.6954063713248,319.55775016564905
1739263387.13394,65.27,1796.5,763.174165255783,324.84473210028176
1739263387.13394,68.86,1770.0,765.0882508683143,336.16529607462314
1739263387.13394,70.58,1768.75,766.8119894930336,341.19076784742003
1739263387.13394,80.95,0.0,600.0,400.0
1739263387.13394,84.56,2312.75,830.2333424878597,378.0743613122009
1739263387.1361835,88.05,2442.0,844.0585842761345,391.69052100737076
1739263387.1361835,97.22,0.0,600.0,400.0
1739263387.1361835,91.34,4023.5,1002.239968116727,409.40906740620045
1739263387.1361835,93.91,0.0,600.0,400.0
1739263387.1361835,95.69,1309.5,730.3047948632671,412.9831789497751
1739263387.1361835,97.45,1286.5,727.5639868009252,416.68088041601453
1739263387.1361835,99.27,1266.25,724.9713024058404,420.39765182534427
1739263387.1361835,101.17,1066.25,704.6051729561473,420.6554693922581
1739263387.1411846,102.98,1061.25,703.4133500502057,423.83683402622086
1739263387.1411846,104.78,1066.5,703.1212178147684,427.20729564655556
1739263387.1411846,106.52,1080.25,703.5657859443662,430.71691076143117
1739263387.1411846,108.91,0.0,600.0,400.0
1739263387.1411846,114.33,0.0,600.0,400.0
1739263387.1411846,120.02,555.75,648.1196592159909,427.80429862335876
1739263387.1411846,121.88,550.75,646.7672719695637,429.0874181997107
1739263387.1411846,123.55,553.25,646.108067930726,430.57616222967766
1739263387.1411846,125.19,560.25,645.7861787065058,432.2866298095034
1739263387.1411846,127.08,569.75,645.4543381927101,434.35191063773215
1739263387.1411846,128.58,597.25,646.6893139868426,437.24491353779763
1739263387.1411846,135.97,0.0,600.0,400.0
1739263387.1411846,131.31,922.0,669.2559313496828,460.8642421532383
1739263387.1411846,133.08,918.0,667.050787901958,462.70113110404515
1739263387.1411846,134.83,926.25,665.6898068768669,465.30114775009645
1739263387.1411846,136.62,934.0,664.1502812672477,467.88447107647676
1739263387.1411846,138.31,963.25,664.0657605416511,471.9311055887494
1739263387.1411846,140.02,1003.25,664.4608361130502,476.8759145155782
1739263387.1470387,141.64,1079.75,667.0093398196143,484.66610302795004
1739263387.1470387,157.19,0.0,600.0,400.0
1739263387.1470387,151.48,2672.25,727.5907172289878,634.79737967446
1739263387.1470387,153.25,2690.25,721.087733100096,640.2336602511812
1739263387.1470387,154.81,0.0,600.0,400.0
1739263387.1470387,156.88,0.0,600.0,400.0
1739263387.1470387,158.72,2199.5,679.825570787507,604.9533623740989
1739263387.1470387,160.45,2198.5,673.5682608187846,607.1756102925712
1739263387.1470387,162.23,2199.0,667.1127607725384,609.4084223270115
1739263387.1470387,163.98,2190.25,660.4449606221415,610.5192565073033
1739263387.1470387,165.75,2209.0,654.3752624301046,614.1031079542221
1739263387.1470387,167.53,2183.5,647.1479654627739,613.1989489953482
1739263387.1470387,169.34,1983.75,636.695521972809,594.9514793279166
1739263387.1470387,171.08,0.0,600.0,400.0
1739263387.1470387,172.83,2228.0,627.8085026900707,621.0577462522776
1739263387.1470387,174.55,2218.25,621.0682883495481,620.8222313333065
1739263387.149134,182.94,5857.75,569.9555034012805,985.0039990026817
1739263387.149134,186.53,5040.25,542.6805475724923,900.7551108060812
1739263387.149134,188.23,5996.5,514.161805654002,993.4744534446437
1739263387.149134,189.98,6071.5,494.7782309056519,997.9627929969018
1739263387.149134,191.77,6064.25,476.29931203605645,993.6745071352207
1739263387.149134,193.55,5698.25,466.4935196355664,953.9643944566303
1739263387.1541364,197.11,4940.75,454.6396082414021,872.2080708043723
1739263387.1541364,198.89,4699.5,447.8526112109801,844.639375881942
1739263387.1541364,200.67,4441.0,443.2393623886944,815.5128307233086
1739263387.1541364,202.5,4219.0,438.5458598851686,789.7847747665119
1739263387.1541364,204.3,4017.0,434.69468214832773,766.1106962244584
1739263387.1541364,210.61,1081.25,544.9436543769323,493.0581239421541
1739263387.157363,236.23,2460.75,395.44384908823605,536.7833569889394
1739263387.157363,238.0,2418.0,394.9419703493762,528.134478091589
1739263387.157363,239.78,2390.0,393.48030023008903,520.2938635465079
1739263387.157363,241.53,2361.5,392.40836764047685,512.5723619469211
1739263387.157363,243.34,2339.25,390.9447704274902,504.96102425846107
1739263387.157363,245.11,2317.75,389.7528448936958,497.54888207819533
1739263387.1594958,246.88,2300.0,388.4725673467961,490.31137932256536
1739263387.1594958,248.64,2284.25,387.2654399257532,483.19848300910695
1739263387.1594958,250.41,2271.25,386.02190672917806,476.15209271703196
1739263387.1594958,252.22,2258.75,384.9136838947735,468.97385192435297
1739263387.1594958,254.0,2244.25,384.2688438890428,461.85991357923007
1739263387.1594958,255.8,1943.25,411.61253238162715,447.66935776089844
1739263387.1594958,259.41,1870.5,416.135940395558,434.3760103236868
1739263387.1594958,261.19,1760.5,426.0270968187259,426.96352088802615
1739263387.1594958,263.0,1733.25,427.96693826676784,421.1230039456972
1739263387.1594958,264.77,1711.0,429.6123223229091,415.59645138510035
1739263387.1594958,266.61,1702.25,430.07286589531486,410.06576971564306
1739263387.1594958,268.36,1717.25,428.3453422586314,404.91468215590726
1739263387.1594958,270.12,1727.0,427.300378773346,399.63829823025037
1739263387.1594958,271.81,1766.0,423.4881122864314,394.42205272590706
1739263387.1635735,276.94,2349.0,366.8210585850176,371.6170600432545
1739263387.1635735,278.69,2372.75,365.44885252138425,364.15052522749255
1739263387.1635735,280.45,2401.75,363.8086473516163,356.43768188988486
1739263387.1635735,282.23,2430.0,362.5148580502263,348.52372048121754
1739263387.1635735,283.98,2462.0,361.09241597438836,340.5222201570593
1739263387.1635735,286.22,1353.0,470.0854486053098,362.2071523179794
1739263387.1635735,290.03,1150.5,491.90898210416697,360.59398078665265
1739263387.1635735,291.81,1108.0,497.1309535517976,358.83448915854956
1739263387.166435,293.62,1063.0,502.6055030128059,357.4088981521792
1739263387.166435,295.41,1056.25,504.593118580962,354.67707420197127
1739263387.166435,297.17,1022.25,509.0549575907082,353.32077671841444
1739263387.166435,301.09,768.5,534.1889473639555,360.31589926764394
1739263387.166435,302.84,781.25,534.3602957022462,357.633210592453
1739263387.166435,305.69,1124.75,508.6494514453635,334.3821449316804
1739263387.1734073,330.12,0.0,600.0,400.0
1739263387.1734073,324.33,3222.25,412.10547092360827,138.22796832327367
1739263387.1734073,338.55,606.0,577.8392378266317,343.59733499296857
1739263387.1734073,340.36,600.0,579.833449912735,343.49061796853704
1739263387.1734073,342.09,595.75,581.6793352861567,343.31196008466213
1739263387.1734073,343.94,592.75,583.6019366571402,343.03835374918
1739263387.1734073,347.36,611.0,586.6298226461373,340.38080546060473
1739263387.1734073,350.27,428.5,592.7581156287207,357.7663924018677
1739263387.1734073,352.14,427.75,594.1503901451364,357.62686358616014
1739263387.1734073,353.78,427.0,595.3736098613307,357.55136616703874
1739263387.1734073,355.47,427.75,596.6215847459648,357.3586241383876
1739263387.1734073,357.06,428.25,597.803498669557,357.2313665532161
1739263387.1734073,359.02,428.75,599.2666920381963,357.1312714856954
1739263387.1734073,0.69,429.75,600.5175256102445,357.0281162590847
1739263387.175942,2.47,431.25,601.8585271174524,356.9150664158143
1739263387.175942,4.11,436.25,603.1266704744546,356.48719088884087
1739263387.175942,5.12,588.0,605.2474281514714,341.4346134837723
1739263387.175942,6.73,588.75,606.8996050540985,341.53068261816753
1739263387.175942,8.44,592.0,608.6889992087611,341.44112968345314
1739263387.175942,11.67,0.0,600.0,400.0
1739263387.175942,13.64,669.0,615.7763989783379,334.98680722133156
1739263387.175942,15.42,666.0,617.7084494299621,335.79742358139765
1739263387.1779583,17.2,648.0,619.1618816428543,338.09796213447214
1739263387.1779583,18.98,644.0,620.9453327630945,339.101288720998
1739263387.1779583,20.72,655.25,623.182833707996,338.71311848146127
1739263387.1779583,22.36,0.0,600.0,400.0
1739263387.1779583,23.94,757.75,630.7479611371563,330.743855789483
1739263387.1779583,29.67,2348.25,716.2392640801803,195.96271391949435
1739263387.179942,32.94,0.0,600.0,400.0
1739263387.179942,34.66,719.5,640.918354963952,340.81815542715805
1739263387.179942,38.14,676.0,641.7487533693143,346.8323256846026
1739263387.179942,43.64,0.0,600.0,400.0
1739263387.179942,45.41,614.75,643.779334199671,356.8427813450227
1739263387.179942,47.3,0.0,600.0,400.0
1739263387.1849735,54.67,556.25,645.3808170175477,367.83290389513127
1739263387.1849735,56.39,0.0,600.0,400.0
1739263387.1849735,59.69,0.0,600.0,400.0
1739263387.1849735,63.23,0.0,600.0,400.0
1739263387.1849735,65.05,1793.75,762.6350516084486,324.3347463275431
1739263387.1849735,84.3,2306.5,829.5095672115568,377.0918997216296
1739263387.187423,91.09,4016.5,1001.5773204200775,407.6405643921372
1739263387.187423,92.83,4056.75,1005.1802479986056,420.02928497946124
1739263387.187423,95.44,1319.5,731.3557001027914,412.5092985616911
1739263387.187423,97.22,1297.25,728.6963963765552,416.30377823354456
1739263387.187423,99.02,1275.0,725.9232934978909,419.9893510310875
1739263387.187423,100.91,1070.25,705.0905974388488,420.2562818638027
1739263387.1914546,102.72,1059.75,703.3741343898976,423.3342873072953
1739263387.1914546,104.44,1066.25,703.2566423387233,426.5886524279246
1739263387.1914546,106.2,1078.25,703.5436666581164,430.0822160086799
1739263387.1914546,107.7,0.0,600.0,400.0
1739263387.1914546,116.31,0.0,600.0,400.0
1739263387.1914546,115.83,3128.0,881.5483902059973,536.287724951338
1739263387.1937628,119.77,559.25,648.5443288481329,427.7678548268377
1739263387.1937628,121.64,551.0,646.9099864407635,428.90437980873116
1739263387.1937628,123.33,552.25,646.1415798027559,430.3439489570146
1739263387.1937628,125.0,559.0,645.7905992757546,432.06292279202347
1739263387.1937628,126.72,567.0,645.4488480421787,433.9012125393613
1739263387.1937628,128.45,590.0,646.2059152121657,436.688055268795
1739263387.1937628,135.69,0.0,600.0,400.0
1739263387.1937628,131.06,921.75,669.5019910424496,460.54505649625946
1739263387.1937628,132.83,918.75,667.3787371049913,462.4589578134032
1739263387.1968226,134.69,925.5,665.7958522552017,465.0876971939527
1739263387.1968226,136.33,934.25,664.5103148689324,467.57699239024475
1739263387.1968226,138.05,958.25,664.0572718823748,471.2677805462434
1739263387.1968226,139.86,997.25,664.2884680533865,476.2369234711678
1739263387.1968226,141.45,1062.0,666.1835589915556,483.0552618393999
1739263387.1968226,149.47,0.0,600.0,400.0
1739263387.1968226,158.69,0.0,600.0,400.0
1739263387.1968226,153.0,2682.5,721.7829515551334,639.0125001135297
1739263387.1968226,154.56,0.0,600.0,400.0
1739263387.2048354,156.58,0.0,600.0,400.0
1739263387.2048354,158.45,2198.0,680.7354038988075,604.4354043635701
1739263387.2048354,160.2,2197.5,674.4376579739028,606.758548977691
1739263387.2048354,161.97,2197.75,668.0236424265547,608.9828574214264
1739263387.2048354,163.73,2197.0,661.5520566355939,610.9014801368844
1739263387.2048354,165.5,2204.25,655.1900123937003,613.4039436303444
1739263387.2048354,167.28,2200.75,648.4575916881624,614.6738629474564
1739263387.2048354,169.11,1980.25,637.4116861862556,594.4589066144854
1739263387.2048354,170.84,2008.0,631.9657531313501,598.2393266401639
1739263387.2048354,172.58,2219.75,628.6662393483647,620.1162132752204
1739263387.2048354,174.34,2220.0,621.8947601584987,620.9176757925943
1739263387.2048354,183.45,0.0,600.0,400.0
1739263387.2048354,177.48,5065.0,622.2698519279985,906.0101814144701
1739263387.2048354,182.72,5853.0,572.2245146489931,984.6405839603646
1739263387.2048354,184.47,0.0,600.0,400.0
1739263387.2048354,186.31,5052.5,544.469089945305,902.1890884203851
1739263387.2048354,188.0,0.0,600.0,400.0
1739263387.2048354,189.78,6065.5,496.96807093223765,997.7351621684771
1739263387.2048354,191.55,6085.5,478.15429090311477,996.2270755967706
1739263387.2048354,193.3,5739.25,467.96870458431704,958.5316845585904
1739263387.2048354,196.88,5009.0,454.55457616002144,879.3187234857502
1739263387.2048354,198.64,4736.75,448.6035708140006,848.8286163500816
1739263387.2048354,200.44,4475.5,443.70376558910345,819.3715412482994
1739263387.2107112,202.25,4241.75,439.38672273453176,792.5911432916512
1739263387.2107112,204.06,4036.75,435.4244949424803,768.6033216888616
1739263387.2107112,232.5,2536.25,398.7857590686355,554.3971174323368
1739263387.2107112,234.3,2489.75,397.8115038921125,545.2871730973893
1739263387.2107112,236.06,2456.75,396.1824423627186,537.1663545618001
1739263387.2107112,237.83,2424.0,394.8151718109491,529.0617924911538
1739263387.2107112,239.59,2391.5,393.7509807717753,521.0539737777964
1739263387.2107112,241.38,2365.25,392.37461152802075,513.2950735330521
1739263387.2107112,243.14,2343.25,390.95558114285393,505.8708485357422
1739263387.2107112,244.92,2319.0,389.9642700519049,498.2985358241458
1739263387.2107112,246.66,2302.25,388.6143083677031,491.2120605958197
1739263387.2107112,248.42,2284.0,387.60971422771604,484.0055147568752
1739263387.2107112,250.19,2271.25,386.3158864449799,476.9731462212977
1739263387.2107112,252.0,2261.75,384.89479242694364,469.89191870275374
1739263387.2107112,253.78,2251.0,383.8598261718791,462.8763489521274
1739263387.228111,255.61,1935.0,412.57076239126786,448.08878132589166
1739263387.228111,257.31,2254.25,380.08147913279123,449.5204483479206
1739263387.228111,259.17,1871.25,416.2078827282072,435.15996663467655
1739263387.228111,261.06,1765.75,425.57010076473614,427.43976818006473
1739263387.228111,262.8,1736.75,427.69447924920803,421.7672493392807
1739263387.228111,264.62,1709.5,429.8030768126358,416.02840720578524
1739263387.228111,266.38,1702.25,430.1146414994497,410.7478180176029
1739263387.228111,268.19,1716.75,428.4106550213653,405.42239013748537
1739263387.228111,269.88,1727.25,427.27537882817705,400.36175412958886
1739263387.228111,271.64,1762.0,423.8721753150144,394.95724562020166
1739263387.228111,276.72,2348.75,366.73862336637643,372.5155353701984
1739263387.228111,278.53,2369.75,365.64633807128763,364.8501526944596
1739263387.228111,280.28,2401.0,363.7542312437438,357.1520508686176
1739263387.228111,282.05,2425.5,362.7943973619151,349.36399919915675
1739263387.228111,284.31,0.0,600.0,400.0
1739263387.228111,286.11,1316.0,473.56783474935094,363.4833244936978
1739263387.228111,288.11,1087.25,496.66107407737263,366.2036686287144
1739263387.228111,289.88,1067.25,499.635075241115,363.70802425957834
1739263387.228111,291.75,1015.0,505.72583038349967,362.38842009275163
1739263387.228111,294.12,702.0,535.9290505642741,371.3128349535083
1739263387.228111,296.08,667.0,540.0913213779085,370.6769676575741
1739263387.228111,297.69,678.0,539.9648124577757,368.4941869368532
1739263387.228111,299.34,700.75,538.913701986814,365.6638700485302
1739263387.228111,307.03,0.0,600.0,400.0
1739263387.228111,302.22,1009.0,514.6378830381148,346.2029834676176
1739263387.228111,303.94,1044.5,513.3459086385915,341.68301319230676
1739263387.228111,329.91,0.0,600.0,400.0
1739263387.228111,324.17,3226.25,411.1410461718327,138.42938585550138
1739263387.228111,338.48,605.75,577.7795161773756,343.64770879823527
1739263387.228111,340.27,600.5,579.7278306907415,343.4753005182977
1739263387.228111,341.94,596.25,581.5154886596847,343.31258106502156
1739263387.228111,343.8,593.0,583.4558274118737,343.0545844393573
1739263387.228111,347.28,608.25,586.6071429538454,340.66778273870705
1739263387.228111,350.05,428.25,592.6003237183862,357.819134481055
1739263387.228111,351.8,427.75,593.8990473607467,357.66232172291933
1739263387.228111,353.56,427.0,595.2106533132114,357.5694431062501
1739263387.228111,355.23,427.75,596.4429991294994,357.37314966119055
1739263387.228111,357.23,428.0,597.9316134114238,357.25000845707456
1739263387.2291007,358.94,428.75,599.2068367357583,357.1323371638218
1739263387.2291007,0.78,430.0,600.5853653498422,357.0039845170834
1739263387.2291007,2.42,431.25,601.8209277170976,356.9134609506739
1739263387.2291007,4.05,435.25,603.074039562654,356.58369078598184
1739263387.2291007,4.83,0.0,600.0,400.0
1739263387.2291007,6.61,588.75,606.7771321591388,341.5163603672141
1739263387.2291007,8.42,592.0,608.6685577779467,341.4381002182272
1739263387.2291007,10.14,596.5,610.5016208721266,341.28170251907744
1739263387.2291007,13.56,669.0,615.6856080876869,334.9648425932596
1739263387.229762,15.34,664.25,617.5724928741835,335.9415257816206
1739263387.229762,17.19,648.5,619.1658544732131,338.04685220013744
1739263387.229762,18.86,644.0,620.8177409554577,339.05755451648287
1739263387.229762,20.48,655.25,622.9259131874574,338.6165484065846
1739263387.229762,22.3,0.0,600.0,400.0
1739263387.229762,23.84,761.5,630.7786085774574,330.3472918399028
1739263387.2531562,29.61,2357.25,716.4702172906918,195.05863250856592
1739263387.2531562,32.75,0.0,600.0,400.0
1739263387.2531562,34.56,719.25,640.8008191659419,340.7674179155753
1739263387.2531562,38.16,677.25,641.8445422965428,346.74861593354746
1739263387.2531562,43.66,0.0,600.0,400.0
1739263387.2531562,45.44,615.0,643.8197381660016,356.84816867080764
1739263387.2546768,47.34,0.0,600.0,400.0
1739263387.2546768,54.53,556.25,645.3020825794142,367.72211377788295
1739263387.2546768,56.11,0.0,600.0,400.0
1739263387.2546768,59.59,0.0,600.0,400.0
1739263387.2546768,63.17,0.0,600.0,400.0
1739263387.2546768,64.91,1794.25,762.4949633345298,323.91637813622543
1739263387.2546768,84.25,2306.0,829.4397403086602,376.89663299225515
1739263387.2546768,86.0,2360.75,835.499933165088,383.5322404608555
1739263387.2546768,91.06,4012.5,1001.1813344143795,407.4228981872187
1739263387.2546768,92.83,4055.25,1005.0304309351933,420.0218790689493
1739263387.2546768,95.39,1324.75,731.8892451537972,412.4439799807606
1739263387.2546768,97.11,1304.75,729.4716929481151,416.1494999968728
1739263387.2546768,98.97,1281.5,726.5827401213475,419.9808008691196
1739263387.2546768,100.94,1070.5,705.1045225308569,420.3160489160811
1739263387.2546768,102.69,1059.75,703.3863380233003,423.28015754095975
1739263387.2546768,104.41,1066.0,703.2463364762011,426.5283622608534
1739263387.2546768,106.22,1078.5,703.5571645817985,430.1253408906572
1739263387.2546768,107.67,0.0,600.0,400.0
1739263387.2546768,113.91,4372.5,999.7266176513309,577.2179269741825
1739263387.2546768,115.83,3132.5,881.9534310486849,536.4837910518114
1739263387.2546768,119.58,559.5,648.6578851422005,427.6190643123265
1739263387.2546768,121.41,551.0,647.0256377868142,428.7158386738636
1739263387.2546768,123.31,552.5,646.1730618159341,430.34156987602853
1739263387.2546768,124.95,559.0,645.8185620149633,432.0229507522489
1739263387.2546768,126.83,567.0,645.3836786671815,433.9884055323873
1739263387.2546768,128.3,589.5,646.2625670429252,436.5359739243235
1739263387.2546768,135.69,0.0,600.0,400.0
1739263387.2546768,130.98,922.25,669.6242070397728,460.48074420080206
1739263387.2546768,132.81,919.0,667.4188755705366,462.4524236263454
1739263387.2546768,134.64,925.5,665.8526269257194,465.0302547048835
1739263387.2546768,136.36,933.75,664.440416549992,467.57457613528555
1739263387.2546768,138.12,958.75,664.003532712861,471.38321529094725
1739263387.2546768,139.81,997.5,664.3711059412765,476.19988989425747
1739263387.2546768,141.41,1062.5,666.2727135288301,483.048118229889
1739263387.2583678,158.7,0.0,600.0,400.0
1739263387.2583678,152.98,2683.0,721.8890903102067,639.0145176832367
1739263387.2583678,154.58,0.0,600.0,400.0
1739263387.2583678,156.59,0.0,600.0,400.0
1739263387.2583678,158.47,2197.75,680.6548628547497,604.4403182419787
1739263387.2583678,160.22,2197.75,674.3739413283974,606.8080449989316
1739263387.2583678,162.0,2197.75,667.9142099387541,609.0184458687673
1739263387.2583678,163.75,2197.25,661.4854301079597,610.9469542549482
1739263387.2583678,165.55,2204.25,655.0037613298852,613.4520247375626
1739263387.2583678,167.33,2200.5,648.2647515896989,614.6916771884385
1739263387.2583678,169.16,1980.75,637.2513779052053,594.5405882307432
1739263387.2583678,170.89,2008.0,631.7927445338115,598.2671465346889
1739263387.2583678,172.59,2219.75,628.6278213853612,620.1212131252412
1739263387.2583678,174.41,2219.75,621.6224067980592,620.9193792976507
1739263387.2583678,183.48,0.0,600.0,400.0
1739263387.2583678,177.52,5068.0,621.9295659764244,906.3253244072289
1739263387.2583678,182.75,5853.25,571.9172019232443,984.6509318193038
1739263387.2583678,184.53,0.0,600.0,400.0
1739263387.2583678,186.31,5056.5,544.4251268299722,902.5866651356116
1739263387.2583678,188.06,0.0,600.0,400.0
1739263387.2583678,189.81,6067.75,496.6167758372818,997.9028429324627
1739263387.2583678,191.58,6084.5,477.86219745022765,996.0652310681381
1739263387.2583678,193.36,5738.75,467.3954375092044,958.3444686137982
1739263387.2583678,196.94,5007.25,454.10370437595907,878.9987437855996
1739263387.2583678,198.7,4724.0,448.5424232473266,847.462135207224
1739263387.2583678,200.48,4468.75,443.6471964037388,818.6299874980159
1739263387.2583678,202.3,4240.75,439.0821291477371,792.3583113244506
1739263387.2583678,204.11,4035.75,435.14373954652575,768.3682858421668
1739263387.2593553,228.98,2617.75,402.49586018985485,571.8088047303008
1739263387.2593553,230.81,2570.25,400.7915434166781,562.4125655566428
1739263387.2593553,232.58,2534.0,398.7490718085741,553.9792969918019
1739263387.2593553,234.34,2488.75,397.79137266295925,545.08768609179
1739263387.2593553,236.12,2456.25,396.08042422005394,536.9249693763954
1739263387.2593553,237.89,2423.0,394.7648340639556,528.7936980725545
1739263387.2593553,239.67,2390.5,393.6684717662222,520.7153799509977
1739263387.262791,241.42,2363.0,392.49315100292006,513.0424593650681
1739263387.262791,243.17,2340.5,391.1455720988033,505.6372587966188
1739263387.262791,245.0,2318.75,389.8498818808768,497.9946094411247
1739263387.262791,246.75,2301.25,388.56317276448476,490.84042995042955
1739263387.262791,248.5,2284.25,387.469367033706,483.7180427144976
1739263387.262791,250.25,2271.25,386.23539753489683,476.74933457650565
1739263387.262791,252.06,2261.0,384.89307320856904,469.64352120869523
1739263387.262791,253.86,2246.75,384.18049370380334,462.4563553777029
1739263387.262791,255.72,1937.75,412.2122810153328,447.7966863237994
1739263387.2657223,257.44,0.0,600.0,400.0
1739263387.2657223,259.28,1870.0,416.26353768732537,434.783795319417
1739263387.2657223,261.12,1765.5,425.5661618990724,427.25323146673435
1739263387.2657223,262.89,1735.75,427.7597309563588,421.48418825029466
1739263387.2657223,264.67,1712.0,429.54023514746984,415.90309927090095
1739263387.2657223,266.52,1699.75,430.33842581395714,410.317503075545
1739263387.2657223,268.22,1716.75,428.4078393857543,405.3325454273646
1739263387.2657223,269.95,1729.75,427.0250658639935,400.15094914452266
1739263387.2657223,271.67,1761.5,423.9248186009492,394.8664831458974
1739263387.268729,276.84,2349.0,366.77187618655074,372.0240770937154
1739263387.268729,278.61,2371.75,365.49789888950386,364.49302604047153
1739263387.268729,280.38,2401.5,363.7801930863767,356.73078089807336
1739263387.268729,282.69,1261.75,476.90708940703087,372.2823885092653
1739263387.268729,284.75,0.0,600.0,400.0
1739263387.268729,286.56,1007.5,503.4289297564994,371.28430930614996
1739263387.268729,289.19,607.0,542.6728711375798,380.0477997105214
1739263387.268729,291.03,607.25,543.3197308725233,378.2084255585601
1739263387.2737446,292.69,608.25,543.882524798394,376.53705896531426
1739263387.2737446,294.55,626.0,543.0591003269049,373.99050280342743
1739263387.2737446,297.34,0.0,600.0,400.0
1739263387.2737446,299.09,936.75,518.1414369759107,354.456819559552
1739263387.2737446,300.61,959.25,517.4418447246138,351.15579233393964
1739263387.2737446,302.3,1003.25,515.1991065820172,346.3911005474658
1739263387.2737446,304.58,8264.25,-80.42424163439023,-69.04278271951381
1739263387.2760289,330.09,0.0,600.0,400.0
1739263387.2760289,324.31,3222.75,411.98493672244746,138.25296256549922
1739263387.2760289,338.62,606.0,577.908163203134,343.57030261519526
1739263387.2760289,340.45,600.0,579.9222394854353,343.45901015440404
1739263387.2760289,342.19,596.0,581.7706558972334,343.25626894904667
1739263387.2760289,343.86,593.0,583.5154695720585,343.03729064931804
1739263387.2780447,347.41,611.0,586.6818552926246,340.3691604825707
1739263387.2780447,350.17,428.5,592.6844151454035,357.77909619352994
1739263387.2780447,351.81,427.75,593.9064367724678,357.66125755065383
1739263387.2780447,353.64,427.0,595.2699021961997,357.5627972791975
1739263387.2780447,355.67,427.75,596.7704515074252,357.3470910542539
1739263387.2780447,357.12,428.25,597.8482870739514,357.2290898333473
1739263387.2780447,358.98,428.75,599.2367642009814,357.1317938780371
1739263387.2780447,0.72,429.75,600.5400255639871,357.028393125341
1739263387.2810276,2.66,431.25,602.0013916870998,356.9214664094191
1739263387.2810276,4.36,436.0,603.3145999814215,356.5261753814648
1739263387.2810276,5.06,590.75,605.2103504556515,341.155222210214
1739263387.2810276,6.7,588.75,606.8689896467232,341.52707800842165
1739263387.2810276,8.66,591.75,608.9100202566785,341.49963962482303
1739263387.2810276,11.77,0.0,600.0,400.0
1739263387.2810276,13.61,669.25,615.7482387828799,334.95425763174507
1739263387.2810276,15.38,665.75,617.6569927750775,335.80918109931247
1739263387.2840455,17.28,648.0,619.2482944861919,338.1247775004175
1739263387.2840455,18.91,644.0,620.8709153382952,339.0757446254637
1739263387.2840455,20.81,655.25,623.2790742761081,338.74960958616305
1739263387.2840455,22.28,0.0,600.0,400.0
1739263387.2840455,23.92,0.0,600.0,400.0
1739263387.2840455,29.72,2365.0,717.2476770140306,194.6095614815199
1739263387.2840455,33.06,0.0,600.0,400.0
1739263387.2840455,34.66,718.0,640.8330491509626,340.94153661806735
1739263387.2840455,38.28,674.75,641.8011036138203,347.0326198338386
1739263387.2840455,43.77,0.0,600.0,400.0
1739263387.2840455,45.62,614.75,643.9372192561186,357.0035305049385
1739263387.2840455,47.28,0.0,600.0,400.0
1739263387.2896051,54.61,556.25,645.3471068366191,367.7853988609474
1739263387.2896051,56.44,568.25,647.3526917482782,368.58657597152853
1739263387.2896051,59.67,0.0,600.0,400.0
1739263387.2896051,63.34,1808.75,761.6452480450046,318.8422560104771
1739263387.2896051,65.11,1794.25,762.75955476194,324.4840549374169
1739263387.2896051,70.39,1766.0,766.3570041674666,340.73021710495715
1739263387.2915177,84.38,2307.25,829.615968718597,377.40503298474783
1739263387.2915177,97.05,0.0,600.0,400.0
